# .PCD v0.7 - Point Cloud Data file format
VERSION 0.7
FIELDS x y z
SIZE 4 4 4
TYPE F F F
COUNT 1 1 1
WIDTH 1649
HEIGHT 1
VIEWPOINT 0 0 0 1 0 0 0
POINTS 1649
DATA ascii
-0.637584 -0.194631 0.078596
-0.637584 -0.181208 0.095966
-0.637584 -0.167785 0.111911
-0.637584 -0.154362 0.132712
-0.637584 -0.140940 0.146028
-0.637584 -0.127517 0.157865
-0.637584 -0.114094 0.173617
-0.637584 -0.100671 0.183702
-0.637584 -0.087248 0.193749
-0.637584 -0.073826 0.203293
-0.637584 -0.060403 0.214350
-0.637584 -0.046980 0.217235
-0.637584 -0.033557 0.223028
-0.637584 -0.020134 0.228441
-0.637584 -0.006711 0.228630
-0.637584 0.006711 0.228502
-0.637584 0.020134 0.225070
-0.637584 0.033557 0.227832
-0.637584 0.046980 0.219990
-0.637584 0.060403 0.207247
-0.637584 0.073826 0.206717
-0.637584 0.087248 0.192210
-0.637584 0.100671 0.181326
-0.637584 0.114094 0.170654
-0.637584 0.127517 0.161323
-0.637584 0.140940 0.143890
-0.637584 0.154362 0.129458
-0.637584 0.167785 0.109380
-0.637584 0.181208 0.097754
-0.637584 0.194631 0.077272
-0.637584 0.208054 0.056878
-0.637584 0.221477 0.041333
-0.637584 0.234899 0.022601
-0.637584 0.248322 0.002576
-0.637584 0.261745 -0.014244
-0.637584 0.275168 -0.034773
-0.637584 0.288591 -0.051793
-0.637584 0.302013 -0.073375
-0.637584 0.315436 -0.090994
-0.637584 0.328859 -0.106783
-0.637584 0.342282 -0.122722
-0.637584 0.355705 -0.141344
-0.637584 0.369128 -0.151544
-0.637584 0.382550 -0.168620
-0.637584 0.395973 -0.181175
-0.637584 0.409396 -0.191347
-0.637584 0.422819 -0.203622
-0.637584 0.436242 -0.213447
-0.637584 0.449664 -0.212794
-0.637584 0.463087 -0.219985
-0.637584 0.476510 -0.227591
-0.637584 0.489933 -0.227494
-0.637584 0.503356 -0.226927
-0.637584 0.516779 -0.227933
-0.637584 0.530201 -0.221261
-0.637584 0.543624 -0.220694
-0.637584 0.557047 -0.211735
-0.637584 0.570470 -0.207477
-0.637584 0.583893 -0.196232
-0.637584 0.597315 -0.183774
-0.637584 0.610738 -0.174224
-0.637584 0.624161 -0.163204
-0.637584 0.637584 -0.147685
-0.637584 0.651007 -0.131527
-0.637584 0.664430 -0.117735
-0.637584 0.677852 -0.100741
-0.637584 0.691275 -0.078788
-0.637584 0.704698 -0.061294
-0.637584 0.718121 -0.046735
-0.637584 0.731544 -0.029043
-0.637584 0.744966 -0.009784
-0.637584 0.758389 0.009795
-0.637584 0.771812 0.030612
-0.637584 0.785235 0.049963
-0.637584 0.798658 0.065925
-0.637584 0.812081 0.087091
-0.637584 0.825503 0.098448
-0.637584 0.838926 0.121266
-0.637584 0.852349 0.140073
-0.637584 0.865772 0.149326
-0.637584 0.879195 0.159816
-0.637584 0.892617 0.178552
-0.637584 0.906040 0.190996
-0.637584 0.919463 0.198806
-0.637584 0.932886 0.208689
-0.637584 0.946309 0.217943
-0.637584 0.959732 0.224337
-0.637584 0.973154 0.226182
-0.637584 0.986577 0.224941
-0.637584 1.000000 0.228563
-0.624161 -1.000000 0.209010
-0.624161 -0.986577 0.210230
-0.624161 -0.973154 0.207533
-0.624161 -0.959732 0.203151
-0.624161 -0.946309 0.202179
-0.624161 -0.932886 0.192071
-0.624161 -0.919463 0.181604
-0.624161 -0.906040 0.176054
-0.624161 -0.892617 0.166149
-0.624161 -0.879195 0.153190
-0.624161 -0.865772 0.138760
-0.624161 -0.852349 0.125670
-0.624161 -0.838926 0.110683
-0.624161 -0.825503 0.095382
-0.624161 -0.812081 0.078833
-0.624161 -0.798658 0.063069
-0.624161 -0.785235 0.043623
-0.624161 -0.771812 0.029322
-0.624161 -0.758389 0.009553
-0.624161 -0.744966 -0.004918
-0.624161 -0.731544 -0.023653
-0.624161 -0.718121 -0.038972
-0.624161 -0.704698 -0.061983
-0.624161 -0.691275 -0.073281
-0.624161 -0.677852 -0.092645
-0.624161 -0.664430 -0.106826
-0.624161 -0.651007 -0.121167
-0.624161 -0.637584 -0.135034
-0.624161 -0.624161 -0.149868
-0.624161 -0.610738 -0.161052
-0.624161 -0.597315 -0.172962
-0.624161 -0.583893 -0.180914
-0.624161 -0.570470 -0.192446
-0.624161 -0.557047 -0.196791
-0.624161 -0.543624 -0.200055
-0.624161 -0.530201 -0.203210
-0.624161 -0.516779 -0.207703
-0.624161 -0.503356 -0.208041
-0.624161 -0.489933 -0.209542
-0.624161 -0.476510 -0.206609
-0.624161 -0.463087 -0.201471
-0.624161 -0.449664 -0.200654
-0.624161 -0.436242 -0.197480
-0.624161 -0.422819 -0.187022
-0.624161 -0.409396 -0.177360
-0.624161 -0.395973 -0.169167
-0.624161 -0.382550 -0.158511
-0.624161 -0.369128 -0.144587
-0.624161 -0.355705 -0.132527
-0.624161 -0.342282 -0.113783
-0.624161 -0.328859 -0.096918
-0.624161 -0.315436 -0.082982
-0.624161 -0.302013 -0.070529
-0.624161 -0.288591 -0.050250
-0.624161 -0.275168 -0.034946
-0.624161 -0.261745 -0.014998
-0.624161 -0.248322 0.000578
-0.624161 -0.234899 0.021956
-0.624161 -0.221477 0.039020
-0.624161 -0.208054 0.054330
-0.624161 -0.194631 0.072947
-0.624161 -0.181208 0.088519
-0.624161 -0.167785 0.107673
-0.624161 -0.154362 0.115501
-0.624161 -0.140940 0.134367
-0.624161 -0.127517 0.149315
-0.624161 -0.114094 0.158340
-0.624161 -0.100671 0.169189
-0.624161 -0.087248 0.180445
-0.624161 -0.073826 0.186874
-0.624161 -0.060403 0.194923
-0.624161 -0.046980 0.199836
-0.624161 -0.033557 0.205983
-0.624161 -0.020134 0.205141
-0.624161 -0.006711 0.209618
-0.624161 0.006711 0.211940
-0.624161 0.020134 0.208568
-0.624161 0.033557 0.205514
-0.624161 0.046980 0.203682
-0.624161 0.060403 0.199151
-0.624161 0.073826 0.187239
-0.624161 0.087248 0.182500
-0.624161 0.100671 0.166686
-0.624161 0.114094 0.157382
-0.624161 0.127517 0.147901
-0.624161 0.140940 0.134057
-0.624161 0.154362 0.119542
-0.624161 0.167785 0.105948
-0.624161 0.181208 0.087987
-0.624161 0.194631 0.073463
-0.624161 0.208054 0.053994
-0.624161 0.221477 0.036360
-0.624161 0.234899 0.016241
-0.624161 0.248322 0.003577
-0.624161 0.261745 -0.017293
-0.624161 0.275168 -0.031214
-0.624161 0.288591 -0.048645
-0.624161 0.302013 -0.068184
-0.624161 0.315436 -0.084159
-0.624161 0.328859 -0.099931
-0.624161 0.342282 -0.116018
-0.624161 0.355705 -0.132984
-0.624161 0.369128 -0.140710
-0.624161 0.382550 -0.157251
-0.624161 0.395973 -0.166460
-0.624161 0.409396 -0.177149
-0.624161 0.422819 -0.186102
-0.624161 0.436242 -0.193866
-0.624161 0.449664 -0.198721
-0.624161 0.463087 -0.207102
-0.624161 0.476510 -0.206733
-0.624161 0.489933 -0.210257
-0.624161 0.503356 -0.210886
-0.624161 0.516779 -0.210670
-0.624161 0.530201 -0.207314
-0.624161 0.543624 -0.201975
-0.624161 0.557047 -0.199944
-0.624161 0.570470 -0.194104
-0.624161 0.583893 -0.182918
-0.624161 0.597315 -0.171375
-0.624161 0.610738 -0.162559
-0.624161 0.624161 -0.147249
-0.624161 0.637584 -0.134364
-0.624161 0.651007 -0.120142
-0.624161 0.664430 -0.105159
-0.624161 0.677852 -0.091885
-0.624161 0.691275 -0.074970
-0.624161 0.704698 -0.060619
-0.624161 0.718121 -0.047355
-0.624161 0.731544 -0.023604
-0.624161 0.744966 -0.008216
-0.624161 0.758389 0.010715
-0.624161 0.771812 0.023858
-0.624161 0.785235 0.048130
-0.624161 0.798658 0.063108
-0.624161 0.812081 0.079055
-0.624161 0.825503 0.094081
-0.624161 0.838926 0.110235
-0.624161 0.852349 0.124841
-0.624161 0.865772 0.138368
-0.624161 0.879195 0.150261
-0.624161 0.892617 0.164357
-0.624161 0.906040 0.174618
-0.624161 0.919463 0.186285
-0.624161 0.932886 0.189023
-0.624161 0.946309 0.198226
-0.624161 0.959732 0.202510
-0.624161 0.973154 0.208698
-0.624161 0.986577 0.210156
-0.624161 1.000000 0.212709
-0.610738 -1.000000 0.195974
-0.610738 -0.986577 0.191616
-0.610738 -0.973154 0.190628
-0.610738 -0.959732 0.184676
-0.610738 -0.946309 0.181205
-0.610738 -0.932886 0.175502
-0.610738 -0.919463 0.172476
-0.610738 -0.906040 0.157469
-0.610738 -0.892617 0.149895
-0.610738 -0.879195 0.139550
-0.610738 -0.865772 0.126358
-0.610738 -0.852349 0.116018
-0.610738 -0.838926 0.101969
-0.610738 -0.825503 0.088082
-0.610738 -0.812081 0.071676
-0.610738 -0.798658 0.059348
-0.610738 -0.785235 0.040364
-0.610738 -0.771812 0.025528
-0.610738 -0.758389 0.011826
-0.610738 -0.744966 -0.003285
-0.610738 -0.731544 -0.023750
-0.610738 -0.718121 -0.037015
-0.610738 -0.704698 -0.054170
-0.610738 -0.691275 -0.067267
-0.610738 -0.677852 -0.083994
-0.610738 -0.664430 -0.095086
-0.610738 -0.651007 -0.108978
-0.610738 -0.637584 -0.126757
-0.610738 -0.624161 -0.137343
-0.610738 -0.610738 -0.149099
-0.610738 -0.597315 -0.157618
-0.610738 -0.583893 -0.169830
-0.610738 -0.570470 -0.177101
-0.610738 -0.557047 -0.178037
-0.610738 -0.543624 -0.184437
-0.610738 -0.530201 -0.187339
-0.610738 -0.516779 -0.193039
-0.610738 -0.503356 -0.194357
-0.610738 -0.489933 -0.192300
-0.610738 -0.476510 -0.187441
-0.610738 -0.463087 -0.186998
-0.610738 -0.449664 -0.182394
-0.610738 -0.436242 -0.174717
-0.610738 -0.422819 -0.169366
-0.610738 -0.409396 -0.161606
-0.610738 -0.395973 -0.151808
-0.610738 -0.382550 -0.142651
-0.610738 -0.369128 -0.127719
-0.610738 -0.355705 -0.118741
-0.610738 -0.342282 -0.106796
-0.610738 -0.328859 -0.090066
-0.610738 -0.315436 -0.074961
-0.610738 -0.302013 -0.062675
-0.610738 -0.288591 -0.044723
-0.610738 -0.275168 -0.028129
-0.610738 -0.261745 -0.020881
-0.610738 -0.248322 -0.001422
-0.610738 -0.234899 0.019019
-0.610738 -0.221477 0.032418
-0.610738 -0.208054 0.053469
-0.610738 -0.194631 0.066206
-0.610738 -0.181208 0.080350
-0.610738 -0.167785 0.095099
-0.610738 -0.154362 0.107964
-0.610738 -0.140940 0.120414
-0.610738 -0.127517 0.134051
-0.610738 -0.114094 0.146972
-0.610738 -0.100671 0.152000
-0.610738 -0.087248 0.164601
-0.610738 -0.073826 0.171079
-0.610738 -0.060403 0.178786
-0.610738 -0.046980 0.182477
-0.610738 -0.033557 0.188327
-0.610738 -0.020134 0.188616
-0.610738 -0.006711 0.192086
-0.610738 0.006711 0.191606
-0.610738 0.020134 0.187430
-0.610738 0.033557 0.188875
-0.610738 0.046980 0.178357
-0.610738 0.060403 0.177863
-0.610738 0.073826 0.168997
-0.610738 0.087248 0.164633
-0.610738 0.100671 0.154422
-0.610738 0.114094 0.146600
-0.610738 0.127517 0.133403
-0.610738 0.140940 0.121272
-0.610738 0.154362 0.110965
-0.610738 0.167785 0.094046
-0.610738 0.181208 0.080494
-0.610738 0.194631 0.068410
-0.610738 0.208054 0.051420
-0.610738 0.221477 0.038245
-0.610738 0.234899 0.019136
-0.610738 0.248322 0.000968
-0.610738 0.261745 -0.012030
-0.610738 0.275168 -0.028437
-0.610738 0.288591 -0.046717
-0.610738 0.302013 -0.060652
-0.610738 0.315436 -0.077019
-0.610738 0.328859 -0.090433
-0.610738 0.342282 -0.105290
-0.610738 0.355705 -0.118792
-0.610738 0.369128 -0.127489
-0.610738 0.382550 -0.141358
-0.610738 0.395973 -0.155324
-0.610738 0.409396 -0.161553
-0.610738 0.422819 -0.170724
-0.610738 0.436242 -0.176446
-0.610738 0.449664 -0.182280
-0.610738 0.463087 -0.186416
-0.610738 0.476510 -0.193604
-0.610738 0.489933 -0.195049
-0.610738 0.503356 -0.189453
-0.610738 0.516779 -0.191283
-0.610738 0.530201 -0.186169
-0.610738 0.543624 -0.184064
-0.610738 0.557047 -0.181142
-0.610738 0.570470 -0.177130
-0.610738 0.583893 -0.165172
-0.610738 0.597315 -0.156422
-0.610738 0.610738 -0.144095
-0.610738 0.624161 -0.137095
-0.610738 0.637584 -0.124658
-0.610738 0.651007 -0.115659
-0.610738 0.664430 -0.099694
-0.610738 0.677852 -0.083725
-0.610738 0.691275 -0.070056
-0.610738 0.704698 -0.055747
-0.610738 0.718121 -0.035425
-0.610738 0.731544 -0.019044
-0.610738 0.744966 -0.008217
-0.610738 0.758389 0.010329
-0.610738 0.771812 0.025415
-0.610738 0.785235 0.045195
-0.610738 0.798658 0.058354
-0.610738 0.812081 0.074315
-0.610738 0.825503 0.085973
-0.610738 0.838926 0.104595
-0.610738 0.852349 0.114715
-0.610738 0.865772 0.131592
-0.610738 0.879195 0.141696
-0.610738 0.892617 0.148861
-0.610738 0.906040 0.160802
-0.610738 0.919463 0.168685
-0.610738 0.932886 0.175009
-0.610738 0.946309 0.182958
-0.610738 0.959732 0.186124
-0.610738 0.973154 0.189625
-0.610738 0.986577 0.190351
-0.610738 1.000000 0.190809
-0.597315 -1.000000 0.172370
-0.597315 -0.986577 0.171962
-0.597315 -0.973154 0.171924
-0.597315 -0.959732 0.164025
-0.597315 -0.946309 0.162735
-0.597315 -0.932886 0.160318
-0.597315 -0.919463 0.149278
-0.597315 -0.906040 0.140980
-0.597315 -0.892617 0.132630
-0.597315 -0.879195 0.126525
-0.597315 -0.865772 0.111982
-0.597315 -0.852349 0.103311
-0.597315 -0.838926 0.089957
-0.597315 -0.825503 0.077519
-0.597315 -0.812081 0.064872
-0.597315 -0.798658 0.051086
-0.597315 -0.785235 0.037081
-0.597315 -0.771812 0.023420
-0.597315 -0.758389 0.009611
-0.597315 -0.744966 -0.006353
-0.597315 -0.731544 -0.018985
-0.597315 -0.718121 -0.035225
-0.597315 -0.704698 -0.049269
-0.597315 -0.691275 -0.062029
-0.597315 -0.677852 -0.078855
-0.597315 -0.664430 -0.089838
-0.597315 -0.651007 -0.101679
-0.597315 -0.637584 -0.113822
-0.597315 -0.624161 -0.122879
-0.597315 -0.610738 -0.133651
-0.597315 -0.597315 -0.142836
-0.597315 -0.583893 -0.146809
-0.597315 -0.570470 -0.151444
-0.597315 -0.557047 -0.159284
-0.597315 -0.543624 -0.165192
-0.597315 -0.530201 -0.166877
-0.597315 -0.516779 -0.170632
-0.597315 -0.503356 -0.172700
-0.597315 -0.489933 -0.171649
-0.597315 -0.476510 -0.171016
-0.597315 -0.463087 -0.172015
-0.597315 -0.449664 -0.165358
-0.597315 -0.436242 -0.160240
-0.597315 -0.422819 -0.151393
-0.597315 -0.409396 -0.146018
-0.597315 -0.395973 -0.140320
-0.597315 -0.382550 -0.127471
-0.597315 -0.369128 -0.116627
-0.597315 -0.355705 -0.104616
-0.597315 -0.342282 -0.093625
-0.597315 -0.328859 -0.077101
-0.597315 -0.315436 -0.070563
-0.597315 -0.302013 -0.052651
-0.597315 -0.288591 -0.039508
-0.597315 -0.275168 -0.028391
-0.597315 -0.261745 -0.012954
-0.597315 -0.248322 0.000323
-0.597315 -0.234899 0.016068
-0.597315 -0.221477 0.029813
-0.597315 -0.208054 0.043975
-0.597315 -0.194631 0.058702
-0.597315 -0.181208 0.070070
-0.597315 -0.167785 0.087307
-0.597315 -0.154362 0.099126
-0.597315 -0.140940 0.107599
-0.597315 -0.127517 0.121560
-0.597315 -0.114094 0.127725
-0.597315 -0.100671 0.135330
-0.597315 -0.087248 0.147611
-0.597315 -0.073826 0.155112
-0.597315 -0.060403 0.158484
-0.597315 -0.046980 0.165821
-0.597315 -0.033557 0.172324
-0.597315 -0.020134 0.176865
-0.597315 -0.006711 0.170318
-0.597315 0.006711 0.172717
-0.597315 0.020134 0.168383
-0.597315 0.033557 0.174066
-0.597315 0.046980 0.163897
-0.597315 0.060403 0.161682
-0.597315 0.073826 0.154208
-0.597315 0.087248 0.144867
-0.597315 0.100671 0.138485
-0.597315 0.114094 0.127121
-0.597315 0.127517 0.118555
-0.597315 0.140940 0.108454
-0.597315 0.154362 0.097820
-0.597315 0.167785 0.080515
-0.597315 0.181208 0.072010
-0.597315 0.194631 0.063818
-0.597315 0.208054 0.042962
-0.597315 0.221477 0.031351
-0.597315 0.234899 0.015469
-0.597315 0.248322 -0.003829
-0.597315 0.261745 -0.014688
-0.597315 0.275168 -0.028487
-0.597315 0.288591 -0.039656
-0.597315 0.302013 -0.055356
-0.597315 0.315436 -0.069269
-0.597315 0.328859 -0.080536
-0.597315 0.342282 -0.094095
-0.597315 0.355705 -0.106484
-0.597315 0.369128 -0.115864
-0.597315 0.382550 -0.130166
-0.597315 0.395973 -0.137133
-0.597315 0.409396 -0.142550
-0.597315 0.422819 -0.156641
-0.597315 0.436242 -0.160163
-0.597315 0.449664 -0.163363
-0.597315 0.463087 -0.167147
-0.597315 0.476510 -0.171017
-0.597315 0.489933 -0.171013
-0.597315 0.503356 -0.173952
-0.597315 0.516779 -0.169302
-0.597315 0.530201 -0.168736
-0.597315 0.543624 -0.162158
-0.597315 0.557047 -0.159579
-0.597315 0.570470 -0.154506
-0.597315 0.583893 -0.146008
-0.597315 0.597315 -0.142620
-0.597315 0.610738 -0.132771
-0.597315 0.624161 -0.125916
-0.597315 0.637584 -0.110036
-0.597315 0.651007 -0.097035
-0.597315 0.664430 -0.089167
-0.597315 0.677852 -0.077857
-0.597315 0.691275 -0.059863
-0.597315 0.704698 -0.049835
-0.597315 0.718121 -0.035274
-0.597315 0.731544 -0.016847
-0.597315 0.744966 -0.006163
-0.597315 0.758389 0.008701
-0.597315 0.771812 0.026752
-0.597315 0.785235 0.038998
-0.597315 0.798658 0.049707
-0.597315 0.812081 0.068496
-0.597315 0.825503 0.075187
-0.597315 0.838926 0.093310
-0.597315 0.852349 0.104252
-0.597315 0.865772 0.113467
-0.597315 0.879195 0.123385
-0.597315 0.892617 0.132258
-0.597315 0.906040 0.146525
-0.597315 0.919463 0.150883
-0.597315 0.932886 0.155869
-0.597315 0.946309 0.163658
-0.597315 0.959732 0.169143
-0.597315 0.973154 0.170410
-0.597315 0.986577 0.172999
-0.597315 1.000000 0.174125
-0.583893 -1.000000 0.151030
-0.583893 -0.986577 0.151009
-0.583893 -0.973154 0.148540
-0.583893 -0.959732 0.144123
-0.583893 -0.946309 0.139872
-0.583893 -0.932886 0.138593
-0.583893 -0.919463 0.130582
-0.583893 -0.906040 0.125326
-0.583893 -0.892617 0.117351
-0.583893 -0.879195 0.111427
-0.583893 -0.865772 0.100908
-0.583893 -0.852349 0.091109
-0.583893 -0.838926 0.079428
-0.583893 -0.825503 0.068662
-0.583893 -0.812081 0.056704
-0.583893 -0.798658 0.045921
-0.583893 -0.785235 0.029690
-0.583893 -0.771812 0.020578
-0.583893 -0.758389 0.008686
-0.583893 -0.744966 -0.003986
-0.583893 -0.731544 -0.019616
-0.583893 -0.718121 -0.030869
-0.583893 -0.704698 -0.043140
-0.583893 -0.691275 -0.055508
-0.583893 -0.677852 -0.068526
-0.583893 -0.664430 -0.079458
-0.583893 -0.651007 -0.087912
-0.583893 -0.637584 -0.097178
-0.583893 -0.624161 -0.106976
-0.583893 -0.610738 -0.117575
-0.583893 -0.597315 -0.122799
-0.583893 -0.583893 -0.130825
-0.583893 -0.570470 -0.137350
-0.583893 -0.557047 -0.143172
-0.583893 -0.543624 -0.146297
-0.583893 -0.530201 -0.146769
-0.583893 -0.516779 -0.150442
-0.583893 -0.503356 -0.151125
-0.583893 -0.489933 -0.152612
-0.583893 -0.476510 -0.143691
-0.583893 -0.463087 -0.151401
-0.583893 -0.449664 -0.147483
-0.583893 -0.436242 -0.140013
-0.583893 -0.422819 -0.133113
-0.583893 -0.409396 -0.123564
-0.583893 -0.395973 -0.118780
-0.583893 -0.382550 -0.111050
-0.583893 -0.369128 -0.100863
-0.583893 -0.355705 -0.092832
-0.583893 -0.342282 -0.086591
-0.583893 -0.328859 -0.071243
-0.583893 -0.315436 -0.059879
-0.583893 -0.302013 -0.044107
-0.583893 -0.288591 -0.037676
-0.583893 -0.275168 -0.021250
-0.583893 -0.261745 -0.013847
-0.583893 -0.248322 0.004656
-0.583893 -0.234899 0.014562
-0.583893 -0.221477 0.028576
-0.583893 -0.208054 0.040723
-0.583893 -0.194631 0.052804
-0.583893 -0.181208 0.063412
-0.583893 -0.167785 0.073224
-0.583893 -0.154362 0.085005
-0.583893 -0.140940 0.093976
-0.583893 -0.127517 0.104785
-0.583893 -0.114094 0.110549
-0.583893 -0.100671 0.122060
-0.583893 -0.087248 0.130753
-0.583893 -0.073826 0.137369
-0.583893 -0.060403 0.142801
-0.583893 -0.046980 0.144690
-0.583893 -0.033557 0.147262
-0.583893 -0.020134 0.149196
-0.583893 -0.006711 0.151563
-0.583893 0.006711 0.152212
-0.583893 0.020134 0.150382
-0.583893 0.033557 0.144879
-0.583893 0.046980 0.147141
-0.583893 0.060403 0.141128
-0.583893 0.073826 0.136947
-0.583893 0.087248 0.128902
-0.583893 0.100671 0.121193
-0.583893 0.114094 0.117642
-0.583893 0.127517 0.102871
-0.583893 0.140940 0.092131
-0.583893 0.154362 0.089316
-0.583893 0.167785 0.075016
-0.583893 0.181208 0.062360
-0.583893 0.194631 0.050279
-0.583893 0.208054 0.035303
-0.583893 0.221477 0.030636
-0.583893 0.234899 0.015708
-0.583893 0.248322 0.002611
-0.583893 0.261745 -0.009477
-0.583893 0.275168 -0.025594
-0.583893 0.288591 -0.035318
-0.583893 0.302013 -0.046275
-0.583893 0.315436 -0.064724
-0.583893 0.328859 -0.070561
-0.583893 0.342282 -0.081187
-0.583893 0.355705 -0.092819
-0.583893 0.369128 -0.104473
-0.583893 0.382550 -0.111982
-0.583893 0.395973 -0.120724
-0.583893 0.409396 -0.126386
-0.583893 0.422819 -0.134576
-0.583893 0.436242 -0.137435
-0.583893 0.449664 -0.144464
-0.583893 0.463087 -0.147911
-0.583893 0.476510 -0.146934
-0.583893 0.489933 -0.150932
-0.583893 0.503356 -0.149815
-0.583893 0.516779 -0.152669
-0.583893 0.530201 -0.145161
-0.583893 0.543624 -0.148183
-0.583893 0.557047 -0.141127
-0.583893 0.570470 -0.136808
-0.583893 0.583893 -0.131954
-0.583893 0.597315 -0.124118
-0.583893 0.610738 -0.113362
-0.583893 0.624161 -0.103794
-0.583893 0.637584 -0.098422
-0.583893 0.651007 -0.088645
-0.583893 0.664430 -0.081041
-0.583893 0.677852 -0.062662
-0.583893 0.691275 -0.056561
-0.583893 0.704698 -0.044198
-0.583893 0.718121 -0.029817
-0.583893 0.731544 -0.015993
-0.583893 0.744966 -0.001726
-0.583893 0.758389 0.012300
-0.583893 0.771812 0.022125
-0.583893 0.785235 0.032177
-0.583893 0.798658 0.044109
-0.583893 0.812081 0.057027
-0.583893 0.825503 0.070546
-0.583893 0.838926 0.081911
-0.583893 0.852349 0.091730
-0.583893 0.865772 0.096559
-0.583893 0.879195 0.108354
-0.583893 0.892617 0.120759
-0.583893 0.906040 0.124302
-0.583893 0.919463 0.131839
-0.583893 0.932886 0.143146
-0.583893 0.946309 0.142258
-0.583893 0.959732 0.148954
-0.583893 0.973154 0.152448
-0.583893 0.986577 0.151892
-0.583893 1.000000 0.150042
-0.570470 -1.000000 0.123974
-0.570470 -0.986577 0.126360
-0.570470 -0.973154 0.127997
-0.570470 -0.959732 0.125626
-0.570470 -0.946309 0.123634
-0.570470 -0.932886 0.115063
-0.570470 -0.919463 0.112825
-0.570470 -0.906040 0.102678
-0.570470 -0.892617 0.098606
-0.570470 -0.879195 0.094310
-0.570470 -0.865772 0.081103
-0.570470 -0.852349 0.078711
-0.570470 -0.838926 0.071800
-0.570470 -0.825503 0.055843
-0.570470 -0.812081 0.048357
-0.570470 -0.798658 0.042124
-0.570470 -0.785235 0.029225
-0.570470 -0.771812 0.018355
-0.570470 -0.758389 0.006987
-0.570470 -0.744966 -0.006808
-0.570470 -0.731544 -0.015146
-0.570470 -0.718121 -0.023001
-0.570470 -0.704698 -0.035920
-0.570470 -0.691275 -0.044914
-0.570470 -0.677852 -0.057015
-0.570470 -0.664430 -0.067568
-0.570470 -0.651007 -0.075754
-0.570470 -0.637584 -0.085531
-0.570470 -0.624161 -0.094090
-0.570470 -0.610738 -0.098696
-0.570470 -0.597315 -0.105704
-0.570470 -0.583893 -0.112968
-0.570470 -0.570470 -0.114747
-0.570470 -0.557047 -0.122229
-0.570470 -0.543624 -0.122885
-0.570470 -0.530201 -0.125230
-0.570470 -0.516779 -0.124489
-0.570470 -0.503356 -0.127822
-0.570470 -0.489933 -0.126698
-0.570470 -0.476510 -0.126988
-0.570470 -0.463087 -0.127907
-0.570470 -0.449664 -0.120448
-0.570470 -0.436242 -0.114999
-0.570470 -0.422819 -0.113963
-0.570470 -0.409396 -0.104076
-0.570470 -0.395973 -0.100194
-0.570470 -0.382550 -0.091094
-0.570470 -0.369128 -0.087835
-0.570470 -0.355705 -0.080998
-0.570470 -0.342282 -0.070309
-0.570470 -0.328859 -0.062565
-0.570470 -0.315436 -0.050973
-0.570470 -0.302013 -0.041746
-0.570470 -0.288591 -0.030532
-0.570470 -0.275168 -0.020421
-0.570470 -0.261745 -0.011425
-0.570470 -0.248322 0.000296
-0.570470 -0.234899 0.014715
-0.570470 -0.221477 0.022786
-0.570470 -0.208054 0.030804
-0.570470 -0.194631 0.039786
-0.570470 -0.181208 0.053198
-0.570470 -0.167785 0.064041
-0.570470 -0.154362 0.070312
-0.570470 -0.140940 0.077770
-0.570470 -0.127517 0.090561
-0.570470 -0.114094 0.103286
-0.570470 -0.100671 0.105411
-0.570470 -0.087248 0.107707
-0.570470 -0.073826 0.114717
-0.570470 -0.060403 0.119151
-0.570470 -0.046980 0.120432
-0.570470 -0.033557 0.122880
-0.570470 -0.020134 0.127222
-0.570470 -0.006711 0.130001
-0.570470 0.006711 0.128926
-0.570470 0.020134 0.126141
-0.570470 0.033557 0.126707
-0.570470 0.046980 0.124018
-0.570470 0.060403 0.117423
-0.570470 0.073826 0.112517
-0.570470 0.087248 0.110990
-0.570470 0.100671 0.105940
-0.570470 0.114094 0.097708
-0.570470 0.127517 0.091798
-0.570470 0.140940 0.084279
-0.570470 0.154362 0.069616
-0.570470 0.167785 0.064441
-0.570470 0.181208 0.056475
-0.570470 0.194631 0.046087
-0.570470 0.208054 0.036340
-0.570470 0.221477 0.021737
-0.570470 0.234899 0.013541
-0.570470 0.248322 0.002908
-0.570470 0.261745 -0.010673
-0.570470 0.275168 -0.019860
-0.570470 0.288591 -0.033525
-0.570470 0.302013 -0.042960
-0.570470 0.315436 -0.050715
-0.570470 0.328859 -0.059010
-0.570470 0.342282 -0.070423
-0.570470 0.355705 -0.076160
-0.570470 0.369128 -0.084494
-0.570470 0.382550 -0.097061
-0.570470 0.395973 -0.102245
-0.570470 0.409396 -0.109270
-0.570470 0.422819 -0.112068
-0.570470 0.436242 -0.116921
-0.570470 0.449664 -0.123747
-0.570470 0.463087 -0.123245
-0.570470 0.476510 -0.129778
-0.570470 0.489933 -0.125922
-0.570470 0.503356 -0.133384
-0.570470 0.516779 -0.128179
-0.570470 0.530201 -0.127643
-0.570470 0.543624 -0.122384
-0.570470 0.557047 -0.119861
-0.570470 0.570470 -0.120523
-0.570470 0.583893 -0.113778
-0.570470 0.597315 -0.106420
-0.570470 0.610738 -0.096289
-0.570470 0.624161 -0.088103
-0.570470 0.637584 -0.082061
-0.570470 0.651007 -0.072046
-0.570470 0.664430 -0.067332
-0.570470 0.677852 -0.055458
-0.570470 0.691275 -0.046104
-0.570470 0.704698 -0.038254
-0.570470 0.718121 -0.026275
-0.570470 0.731544 -0.015586
-0.570470 0.744966 -0.003152
-0.570470 0.758389 0.007763
-0.570470 0.771812 0.016464
-0.570470 0.785235 0.027160
-0.570470 0.798658 0.034886
-0.570470 0.812081 0.049886
-0.570470 0.825503 0.058509
-0.570470 0.838926 0.068080
-0.570470 0.852349 0.078169
-0.570470 0.865772 0.084477
-0.570470 0.879195 0.091324
-0.570470 0.892617 0.099167
-0.570470 0.906040 0.106091
-0.570470 0.919463 0.112861
-0.570470 0.932886 0.116063
-0.570470 0.946309 0.120408
-0.570470 0.959732 0.121783
-0.570470 0.973154 0.125895
-0.570470 0.986577 0.124584
-0.570470 1.000000 0.127213
-0.557047 -1.000000 0.106323
-0.557047 -0.986577 0.105212
-0.557047 -0.973154 0.103437
-0.557047 -0.959732 0.101443
-0.557047 -0.946309 0.101112
-0.557047 -0.932886 0.093667
-0.557047 -0.919463 0.092938
-0.557047 -0.906040 0.085996
-0.557047 -0.892617 0.082740
-0.557047 -0.879195 0.076049
-0.557047 -0.865772 0.068894
-0.557047 -0.852349 0.063735
-0.557047 -0.838926 0.054499
-0.557047 -0.825503 0.045650
-0.557047 -0.812081 0.039052
-0.557047 -0.798658 0.029167
-0.557047 -0.785235 0.023400
-0.557047 -0.771812 0.013163
-0.557047 -0.758389 0.003017
-0.557047 -0.744966 -0.002599
-0.557047 -0.731544 -0.011374
-0.557047 -0.718121 -0.021309
-0.557047 -0.704698 -0.030138
-0.557047 -0.691275 -0.036131
-0.557047 -0.677852 -0.046634
-0.557047 -0.664430 -0.053381
-0.557047 -0.651007 -0.063591
-0.557047 -0.637584 -0.067193
-0.557047 -0.624161 -0.075095
-0.557047 -0.610738 -0.079743
-0.557047 -0.597315 -0.086721
-0.557047 -0.583893 -0.092464
-0.557047 -0.570470 -0.097498
-0.557047 -0.557047 -0.098967
-0.557047 -0.543624 -0.102233
-0.557047 -0.530201 -0.105948
-0.557047 -0.516779 -0.102157
-0.557047 -0.503356 -0.103169
-0.557047 -0.489933 -0.109102
-0.557047 -0.476510 -0.108377
-0.557047 -0.463087 -0.105465
-0.557047 -0.449664 -0.099710
-0.557047 -0.436242 -0.091551
-0.557047 -0.422819 -0.095472
-0.557047 -0.409396 -0.089280
-0.557047 -0.395973 -0.080885
-0.557047 -0.382550 -0.078854
-0.557047 -0.369128 -0.069391
-0.557047 -0.355705 -0.063004
-0.557047 -0.342282 -0.057719
-0.557047 -0.328859 -0.048275
-0.557047 -0.315436 -0.040190
-0.557047 -0.302013 -0.036591
-0.557047 -0.288591 -0.025618
-0.557047 -0.275168 -0.017831
-0.557047 -0.261745 -0.007700
-0.557047 -0.248322 -0.001318
-0.557047 -0.234899 0.007978
-0.557047 -0.221477 0.018872
-0.557047 -0.208054 0.027403
-0.557047 -0.194631 0.038651
-0.557047 -0.181208 0.044507
-0.557047 -0.167785 0.054844
-0.557047 -0.154362 0.062124
-0.557047 -0.140940 0.068880
-0.557047 -0.127517 0.066162
-0.557047 -0.114094 0.077793
-0.557047 -0.100671 0.085809
-0.557047 -0.087248 0.087175
-0.557047 -0.073826 0.093067
-0.557047 -0.060403 0.099091
-0.557047 -0.046980 0.100786
-0.557047 -0.033557 0.102215
-0.557047 -0.020134 0.107867
-0.557047 -0.006711 0.104305
-0.557047 0.006711 0.107372
-0.557047 0.020134 0.104303
-0.557047 0.033557 0.103111
-0.557047 0.046980 0.099974
-0.557047 0.060403 0.096073
-0.557047 0.073826 0.093679
-0.557047 0.087248 0.087090
-0.557047 0.100671 0.086104
-0.557047 0.114094 0.079565
-0.557047 0.127517 0.072352
-0.557047 0.140940 0.068194
-0.557047 0.154362 0.057419
-0.557047 0.167785 0.048045
-0.557047 0.181208 0.044929
-0.557047 0.194631 0.033125
-0.557047 0.208054 0.024627
-0.557047 0.221477 0.019087
-0.557047 0.234899 0.011903
-0.557047 0.248322 -0.000448
-0.557047 0.261745 -0.009544
-0.557047 0.275168 -0.013561
-0.557047 0.288591 -0.028094
-0.557047 0.302013 -0.032090
-0.557047 0.315436 -0.041202
-0.557047 0.328859 -0.051490
-0.557047 0.342282 -0.057933
-0.557047 0.355705 -0.066592
-0.557047 0.369128 -0.072955
-0.557047 0.382550 -0.078169
-0.557047 0.395973 -0.084965
-0.557047 0.409396 -0.091940
-0.557047 0.422819 -0.091684
-0.557047 0.436242 -0.098119
-0.557047 0.449664 -0.098430
-0.557047 0.463087 -0.102733
-0.557047 0.476510 -0.098473
-0.557047 0.489933 -0.103917
-0.557047 0.503356 -0.107913
-0.557047 0.516779 -0.107403
-0.557047 0.530201 -0.105147
-0.557047 0.543624 -0.102172
-0.557047 0.557047 -0.101860
-0.557047 0.570470 -0.097346
-0.557047 0.583893 -0.090928
-0.557047 0.597315 -0.089301
-0.557047 0.610738 -0.080979
-0.557047 0.624161 -0.074343
-0.557047 0.637584 -0.070318
-0.557047 0.651007 -0.060113
-0.557047 0.664430 -0.053727
-0.557047 0.677852 -0.043905
-0.557047 0.691275 -0.036628
-0.557047 0.704698 -0.029979
-0.557047 0.718121 -0.021255
-0.557047 0.731544 -0.011254
-0.557047 0.744966 -0.002572
-0.557047 0.758389 0.002159
-0.557047 0.771812 0.016231
-0.557047 0.785235 0.021988
-0.557047 0.798658 0.033945
-0.557047 0.812081 0.040377
-0.557047 0.825503 0.046777
-0.557047 0.838926 0.055791
-0.557047 0.852349 0.065991
-0.557047 0.865772 0.068481
-0.557047 0.879195 0.072934
-0.557047 0.892617 0.081672
-0.557047 0.906040 0.089948
-0.557047 0.919463 0.095230
-0.557047 0.932886 0.098089
-0.557047 0.946309 0.095071
-0.557047 0.959732 0.101418
-0.557047 0.973154 0.102793
-0.557047 0.986577 0.104516
-0.557047 1.000000 0.103053
-0.543624 -1.000000 0.080654
-0.543624 -0.986577 0.078547
-0.543624 -0.973154 0.084692
-0.543624 -0.959732 0.078738
-0.543624 -0.946309 0.075592
-0.543624 -0.932886 0.071611
-0.543624 -0.919463 0.072943
-0.543624 -0.906040 0.068626
-0.543624 -0.892617 0.065735
-0.543624 -0.879195 0.059606
-0.543624 -0.865772 0.053059
-0.543624 -0.852349 0.047239
-0.543624 -0.838926 0.041519
-0.543624 -0.825503 0.036284
-0.543624 -0.812081 0.032248
-0.543624 -0.798658 0.023338
-0.543624 -0.785235 0.018400
-0.543624 -0.771812 0.012600
-0.543624 -0.758389 0.003370
-0.543624 -0.744966 -0.000611
-0.543624 -0.731544 -0.008555
-0.543624 -0.718121 -0.015391
-0.543624 -0.704698 -0.022855
-0.543624 -0.691275 -0.028940
-0.543624 -0.677852 -0.037284
-0.543624 -0.664430 -0.043263
-0.543624 -0.651007 -0.046813
-0.543624 -0.637584 -0.050916
-0.543624 -0.624161 -0.058183
-0.543624 -0.610738 -0.061324
-0.543624 -0.597315 -0.066953
-0.543624 -0.583893 -0.071747
-0.543624 -0.570470 -0.073348
-0.543624 -0.557047 -0.075274
-0.543624 -0.543624 -0.079550
-0.543624 -0.530201 -0.080934
-0.543624 -0.516779 -0.081743
-0.543624 -0.503356 -0.080820
-0.543624 -0.489933 -0.083991
-0.543624 -0.476510 -0.079772
-0.543624 -0.463087 -0.078506
-0.543624 -0.449664 -0.076766
-0.543624 -0.436242 -0.075899
-0.543624 -0.422819 -0.071281
-0.543624 -0.409396 -0.070604
-0.543624 -0.395973 -0.065989
-0.543624 -0.382550 -0.058480
-0.543624 -0.369128 -0.057920
-0.543624 -0.355705 -0.051343
-0.543624 -0.342282 -0.045645
-0.543624 -0.328859 -0.037310
-0.543624 -0.315436 -0.035334
-0.543624 -0.302013 -0.027246
-0.543624 -0.288591 -0.021668
-0.543624 -0.275168 -0.009475
-0.543624 -0.261745 -0.006540
-0.543624 -0.248322 -0.000183
-0.543624 -0.234899 0.007921
-0.543624 -0.221477 0.016203
-0.543624 -0.208054 0.017009
-0.543624 -0.194631 0.025522
-0.543624 -0.181208 0.034453
-0.543624 -0.167785 0.038847
-0.543624 -0.154362 0.043027
-0.543624 -0.140940 0.049973
-0.543624 -0.127517 0.056818
-0.543624 -0.114094 0.061868
-0.543624 -0.100671 0.069414
-0.543624 -0.087248 0.066026
-0.543624 -0.073826 0.069661
-0.543624 -0.060403 0.073010
-0.543624 -0.046980 0.079637
-0.543624 -0.033557 0.077614
-0.543624 -0.020134 0.077517
-0.543624 -0.006711 0.082756
-0.543624 0.006711 0.079651
-0.543624 0.020134 0.082785
-0.543624 0.033557 0.079835
-0.543624 0.046980 0.076368
-0.543624 0.060403 0.077213
-0.543624 0.073826 0.074255
-0.543624 0.087248 0.072309
-0.543624 0.100671 0.064666
-0.543624 0.114094 0.060580
-0.543624 0.127517 0.059449
-0.543624 0.140940 0.053614
-0.543624 0.154362 0.046426
-0.543624 0.167785 0.038407
-0.543624 0.181208 0.031922
-0.543624 0.194631 0.024822
-0.543624 0.208054 0.019173
-0.543624 0.221477 0.014062
-0.543624 0.234899 0.005309
-0.543624 0.248322 0.002297
-0.543624 0.261745 -0.011144
-0.543624 0.275168 -0.014390
-0.543624 0.288591 -0.020858
-0.543624 0.302013 -0.024851
-0.543624 0.315436 -0.031409
-0.543624 0.328859 -0.041071
-0.543624 0.342282 -0.044032
-0.543624 0.355705 -0.052143
-0.543624 0.369128 -0.054680
-0.543624 0.382550 -0.062518
-0.543624 0.395973 -0.064211
-0.543624 0.409396 -0.065460
-0.543624 0.422819 -0.067761
-0.543624 0.436242 -0.072601
-0.543624 0.449664 -0.079239
-0.543624 0.463087 -0.080068
-0.543624 0.476510 -0.082187
-0.543624 0.489933 -0.082262
-0.543624 0.503356 -0.084681
-0.543624 0.516779 -0.082014
-0.543624 0.530201 -0.077511
-0.543624 0.543624 -0.073704
-0.543624 0.557047 -0.075174
-0.543624 0.570470 -0.072967
-0.543624 0.583893 -0.068835
-0.543624 0.597315 -0.069652
-0.543624 0.610738 -0.064019
-0.543624 0.624161 -0.056111
-0.543624 0.637584 -0.053171
-0.543624 0.651007 -0.048050
-0.543624 0.664430 -0.039878
-0.543624 0.677852 -0.039377
-0.543624 0.691275 -0.026953
-0.543624 0.704698 -0.024427
-0.543624 0.718121 -0.015030
-0.543624 0.731544 -0.009394
-0.543624 0.744966 -0.001111
-0.543624 0.758389 0.006263
-0.543624 0.771812 0.009070
-0.543624 0.785235 0.019506
-0.543624 0.798658 0.025454
-0.543624 0.812081 0.033728
-0.543624 0.825503 0.036038
-0.543624 0.838926 0.045423
-0.543624 0.852349 0.050152
-0.543624 0.865772 0.053112
-0.543624 0.879195 0.060915
-0.543624 0.892617 0.062667
-0.543624 0.906040 0.069285
-0.543624 0.919463 0.070826
-0.543624 0.932886 0.074306
-0.543624 0.946309 0.076763
-0.543624 0.959732 0.080646
-0.543624 0.973154 0.079878
-0.543624 0.986577 0.082077
-0.543624 1.000000 0.082403
-0.530201 -1.000000 0.054869
-0.530201 -0.986577 0.058234
-0.530201 -0.973154 0.058730
-0.530201 -0.959732 0.055807
-0.530201 -0.946309 0.054209
-0.530201 -0.932886 0.049926
-0.530201 -0.919463 0.052074
-0.530201 -0.906040 0.043941
-0.530201 -0.892617 0.044477
-0.530201 -0.879195 0.044153
-0.530201 -0.865772 0.036249
-0.530201 -0.852349 0.035012
-0.530201 -0.838926 0.028545
-0.530201 -0.825503 0.027166
-0.530201 -0.812081 0.018687
-0.530201 -0.798658 0.016207
-0.530201 -0.785235 0.011150
-0.530201 -0.771812 0.007934
-0.530201 -0.758389 -0.000421
-0.530201 -0.744966 0.001226
-0.530201 -0.731544 -0.005927
-0.530201 -0.718121 -0.012237
-0.530201 -0.704698 -0.012912
-0.530201 -0.691275 -0.020457
-0.530201 -0.677852 -0.024269
-0.530201 -0.664430 -0.028403
-0.530201 -0.651007 -0.029789
-0.530201 -0.637584 -0.036413
-0.530201 -0.624161 -0.042359
-0.530201 -0.610738 -0.043255
-0.530201 -0.597315 -0.045495
-0.530201 -0.583893 -0.048958
-0.530201 -0.570470 -0.052430
-0.530201 -0.557047 -0.054607
-0.530201 -0.543624 -0.057869
-0.530201 -0.530201 -0.054609
-0.530201 -0.516779 -0.057942
-0.530201 -0.503356 -0.057860
-0.530201 -0.489933 -0.055455
-0.530201 -0.476510 -0.053814
-0.530201 -0.463087 -0.057143
-0.530201 -0.449664 -0.054483
-0.530201 -0.436242 -0.052895
-0.530201 -0.422819 -0.049051
-0.530201 -0.409396 -0.049743
-0.530201 -0.395973 -0.046528
-0.530201 -0.382550 -0.041026
-0.530201 -0.369128 -0.039716
-0.530201 -0.355705 -0.036937
-0.530201 -0.342282 -0.031025
-0.530201 -0.328859 -0.028738
-0.530201 -0.315436 -0.023163
-0.530201 -0.302013 -0.015598
-0.530201 -0.288591 -0.013940
-0.530201 -0.275168 -0.009185
-0.530201 -0.261745 -0.005113
-0.530201 -0.248322 -0.002446
-0.530201 -0.234899 0.005716
-0.530201 -0.221477 0.012121
-0.530201 -0.208054 0.017267
-0.530201 -0.194631 0.024998
-0.530201 -0.181208 0.023113
-0.530201 -0.167785 0.028352
-0.530201 -0.154362 0.029794
-0.530201 -0.140940 0.039516
-0.530201 -0.127517 0.041359
-0.530201 -0.114094 0.044581
-0.530201 -0.100671 0.046833
-0.530201 -0.087248 0.048030
-0.530201 -0.073826 0.045532
-0.530201 -0.060403 0.055061
-0.530201 -0.046980 0.055475
-0.530201 -0.033557 0.055849
-0.530201 -0.020134 0.054482
-0.530201 -0.006711 0.058272
-0.530201 0.006711 0.057134
-0.530201 0.020134 0.056536
-0.530201 0.033557 0.053120
-0.530201 0.046980 0.051896
-0.530201 0.060403 0.052382
-0.530201 0.073826 0.050395
-0.530201 0.087248 0.046215
-0.530201 0.100671 0.049108
-0.530201 0.114094 0.041782
-0.530201 0.127517 0.039245
-0.530201 0.140940 0.036332
-0.530201 0.154362 0.034938
-0.530201 0.167785 0.026398
-0.530201 0.181208 0.023333
-0.530201 0.194631 0.016743
-0.530201 0.208054 0.016840
-0.530201 0.221477 0.010940
-0.530201 0.234899 0.005678
-0.530201 0.248322 0.001165
-0.530201 0.261745 -0.000540
-0.530201 0.275168 -0.009131
-0.530201 0.288591 -0.014755
-0.530201 0.302013 -0.019324
-0.530201 0.315436 -0.020554
-0.530201 0.328859 -0.025729
-0.530201 0.342282 -0.030042
-0.530201 0.355705 -0.036177
-0.530201 0.369128 -0.037417
-0.530201 0.382550 -0.040664
-0.530201 0.395973 -0.044712
-0.530201 0.409396 -0.047926
-0.530201 0.422819 -0.049116
-0.530201 0.436242 -0.051308
-0.530201 0.449664 -0.054740
-0.530201 0.463087 -0.055696
-0.530201 0.476510 -0.059402
-0.530201 0.489933 -0.055279
-0.530201 0.503356 -0.056794
-0.530201 0.516779 -0.053174
-0.530201 0.530201 -0.059140
-0.530201 0.543624 -0.054136
-0.530201 0.557047 -0.051805
-0.530201 0.570470 -0.052527
-0.530201 0.583893 -0.047940
-0.530201 0.597315 -0.045768
-0.530201 0.610738 -0.042374
-0.530201 0.624161 -0.040690
-0.530201 0.637584 -0.043081
-0.530201 0.651007 -0.032809
-0.530201 0.664430 -0.028791
-0.530201 0.677852 -0.026245
-0.530201 0.691275 -0.023060
-0.530201 0.704698 -0.014845
-0.530201 0.718121 -0.010466
-0.530201 0.731544 -0.003389
-0.530201 0.744966 -0.003402
-0.530201 0.758389 0.005352
-0.530201 0.771812 0.007765
-0.530201 0.785235 0.011433
-0.530201 0.798658 0.018030
-0.530201 0.812081 0.023270
-0.530201 0.825503 0.024799
-0.530201 0.838926 0.033139
-0.530201 0.852349 0.033971
-0.530201 0.865772 0.035161
-0.530201 0.879195 0.038776
-0.530201 0.892617 0.046332
-0.530201 0.906040 0.045903
-0.530201 0.919463 0.049674
-0.530201 0.932886 0.051842
-0.530201 0.946309 0.053173
-0.530201 0.959732 0.056744
-0.530201 0.973154 0.054820
-0.530201 0.986577 0.054167
-0.530201 1.000000 0.051984
-0.516779 -1.000000 0.031331
-0.516779 -0.986577 0.030928
-0.516779 -0.973154 0.033597
-0.516779 -0.959732 0.029155
-0.516779 -0.946309 0.031835
-0.516779 -0.932886 0.028225
-0.516779 -0.919463 0.031053
-0.516779 -0.906040 0.024277
-0.516779 -0.892617 0.023849
-0.516779 -0.879195 0.024260
-0.516779 -0.865772 0.023368
-0.516779 -0.852349 0.020618
-0.516779 -0.838926 0.014065
-0.516779 -0.825503 0.016597
-0.516779 -0.812081 0.011985
-0.516779 -0.798658 0.006245
-0.516779 -0.785235 0.005814
-0.516779 -0.771812 0.003616
-0.516779 -0.758389 0.000065
-0.516779 -0.744966 0.001614
-0.516779 -0.731544 -0.002579
-0.516779 -0.718121 -0.004002
-0.516779 -0.704698 -0.010625
-0.516779 -0.691275 -0.014726
-0.516779 -0.677852 -0.012921
-0.516779 -0.664430 -0.016099
-0.516779 -0.651007 -0.016667
-0.516779 -0.637584 -0.019169
-0.516779 -0.624161 -0.022128
-0.516779 -0.610738 -0.022628
-0.516779 -0.597315 -0.025695
-0.516779 -0.583893 -0.026873
-0.516779 -0.570470 -0.024567
-0.516779 -0.557047 -0.026983
-0.516779 -0.543624 -0.032494
-0.516779 -0.530201 -0.034165
-0.516779 -0.516779 -0.028678
-0.516779 -0.503356 -0.032434
-0.516779 -0.489933 -0.031768
-0.516779 -0.476510 -0.032201
-0.516779 -0.463087 -0.030069
-0.516779 -0.449664 -0.030830
-0.516779 -0.436242 -0.031449
-0.516779 -0.422819 -0.031498
-0.516779 -0.409396 -0.031373
-0.516779 -0.395973 -0.027170
-0.516779 -0.382550 -0.020906
-0.516779 -0.369128 -0.023359
-0.516779 -0.355705 -0.019506
-0.516779 -0.342282 -0.015053
-0.516779 -0.328859 -0.012382
-0.516779 -0.315436 -0.013731
-0.516779 -0.302013 -0.008711
-0.516779 -0.288591 -0.008331
-0.516779 -0.275168 -0.008848
-0.516779 -0.261745 -0.000413
-0.516779 -0.248322 0.000553
-0.516779 -0.234899 0.001237
-0.516779 -0.221477 0.006039
-0.516779 -0.208054 0.008891
-0.516779 -0.194631 0.011095
-0.516779 -0.181208 0.011288
-0.516779 -0.167785 0.015242
-0.516779 -0.154362 0.018460
-0.516779 -0.140940 0.021486
-0.516779 -0.127517 0.021535
-0.516779 -0.114094 0.021632
-0.516779 -0.100671 0.026309
-0.516779 -0.087248 0.029416
-0.516779 -0.073826 0.027041
-0.516779 -0.060403 0.030334
-0.516779 -0.046980 0.032299
-0.516779 -0.033557 0.032986
-0.516779 -0.020134 0.034005
-0.516779 -0.006711 0.032107
-0.516779 0.006711 0.034356
-0.516779 0.020134 0.034021
-0.516779 0.033557 0.029214
-0.516779 0.046980 0.030823
-0.516779 0.060403 0.029792
-0.516779 0.073826 0.026863
-0.516779 0.087248 0.026284
-0.516779 0.100671 0.021445
-0.516779 0.114094 0.025219
-0.516779 0.127517 0.023664
-0.516779 0.140940 0.022280
-0.516779 0.154362 0.020546
-0.516779 0.167785 0.014382
-0.516779 0.181208 0.012904
-0.516779 0.194631 0.013849
-0.516779 0.208054 0.010383
-0.516779 0.221477 0.004152
-0.516779 0.234899 -0.001730
-0.516779 0.248322 -0.000125
-0.516779 0.261745 -0.004464
-0.516779 0.275168 -0.004846
-0.516779 0.288591 -0.005638
-0.516779 0.302013 -0.013028
-0.516779 0.315436 -0.012067
-0.516779 0.328859 -0.017441
-0.516779 0.342282 -0.012331
-0.516779 0.355705 -0.019355
-0.516779 0.369128 -0.020533
-0.516779 0.382550 -0.025444
-0.516779 0.395973 -0.029327
-0.516779 0.409396 -0.028507
-0.516779 0.422819 -0.029842
-0.516779 0.436242 -0.026724
-0.516779 0.449664 -0.032298
-0.516779 0.463087 -0.029069
-0.516779 0.476510 -0.030382
-0.516779 0.489933 -0.031728
-0.516779 0.503356 -0.036534
-0.516779 0.516779 -0.032492
-0.516779 0.530201 -0.029060
-0.516779 0.543624 -0.029315
-0.516779 0.557047 -0.029263
-0.516779 0.570470 -0.031398
-0.516779 0.583893 -0.027031
-0.516779 0.597315 -0.025341
-0.516779 0.610738 -0.025202
-0.516779 0.624161 -0.021573
-0.516779 0.637584 -0.021910
-0.516779 0.651007 -0.022409
-0.516779 0.664430 -0.017453
-0.516779 0.677852 -0.015206
-0.516779 0.691275 -0.008947
-0.516779 0.704698 -0.007426
-0.516779 0.718121 -0.006382
-0.516779 0.731544 -0.004746
-0.516779 0.744966 0.000118
-0.516779 0.758389 0.004652
-0.516779 0.771812 0.002379
-0.516779 0.785235 0.005654
-0.516779 0.798658 0.011803
-0.516779 0.812081 0.012965
-0.516779 0.825503 0.013544
-0.516779 0.838926 0.019045
-0.516779 0.852349 0.020033
-0.516779 0.865772 0.019105
-0.516779 0.879195 0.023452
-0.516779 0.892617 0.024637
-0.516779 0.906040 0.029530
-0.516779 0.919463 0.028827
-0.516779 0.932886 0.029770
-0.516779 0.946309 0.030055
-0.516779 0.959732 0.031605
-0.516779 0.973154 0.028342
-0.516779 0.986577 0.028547
-0.516779 1.000000 0.032347
-0.503356 -1.000000 0.007124
-0.503356 -0.986577 0.005495
-0.503356 -0.973154 0.002239
-0.503356 -0.959732 0.003948
-0.503356 -0.946309 0.007044
-0.503356 -0.932886 0.006025
-0.503356 -0.919463 0.004250
-0.503356 -0.906040 0.003396
-0.503356 -0.892617 0.005472
-0.503356 -0.879195 0.004287
-0.503356 -0.865772 0.003887
-0.503356 -0.852349 0.002784
-0.503356 -0.838926 0.003653
-0.503356 -0.825503 0.003455
-0.503356 -0.812081 0.001152
-0.503356 -0.798658 0.005229
-0.503356 -0.785235 0.000211
-0.503356 -0.771812 0.001197
-0.503356 -0.758389 -0.002770
-0.503356 -0.744966 -0.002198
-0.503356 -0.731544 0.001109
-0.503356 -0.718121 0.000194
-0.503356 -0.704698 -0.001347
-0.503356 -0.691275 -0.003626
-0.503356 -0.677852 -0.002063
-0.503356 -0.664430 -0.005225
-0.503356 -0.651007 -0.001545
-0.503356 -0.637584 -0.009363
-0.503356 -0.624161 -0.005266
-0.503356 -0.610738 -0.006449
-0.503356 -0.597315 -0.002589
-0.503356 -0.583893 -0.005862
-0.503356 -0.570470 -0.003240
-0.503356 -0.557047 -0.003032
-0.503356 -0.543624 -0.005179
-0.503356 -0.530201 -0.009487
-0.503356 -0.516779 -0.007797
-0.503356 -0.503356 -0.007322
-0.503356 -0.489933 -0.005511
-0.503356 -0.476510 -0.005497
-0.503356 -0.463087 -0.008815
-0.503356 -0.449664 -0.004442
-0.503356 -0.436242 -0.007854
-0.503356 -0.422819 -0.006303
-0.503356 -0.409396 -0.004813
-0.503356 -0.395973 -0.005281
-0.503356 -0.382550 -0.001542
-0.503356 -0.369128 -0.002026
-0.503356 -0.355705 -0.006537
-0.503356 -0.342282 -0.005717
-0.503356 -0.328859 -0.000708
-0.503356 -0.315436 -0.002301
-0.503356 -0.302013 -0.000774
-0.503356 -0.288591 -0.001468
-0.503356 -0.275168 0.001465
-0.503356 -0.261745 0.001077
-0.503356 -0.248322 0.001640
-0.503356 -0.234899 -0.000754
-0.503356 -0.221477 0.002342
-0.503356 -0.208054 -0.001573
-0.503356 -0.194631 0.001675
-0.503356 -0.181208 0.001379
-0.503356 -0.167785 0.001570
-0.503356 -0.154362 0.001702
-0.503356 -0.140940 -0.000012
-0.503356 -0.127517 0.006878
-0.503356 -0.114094 0.004343
-0.503356 -0.100671 0.004747
-0.503356 -0.087248 0.006401
-0.503356 -0.073826 0.007787
-0.503356 -0.060403 0.008548
-0.503356 -0.046980 0.005188
-0.503356 -0.033557 0.006561
-0.503356 -0.020134 0.004464
-0.503356 -0.006711 0.007785
-0.503356 0.006711 0.006361
-0.503356 0.020134 0.008093
-0.503356 0.033557 0.007839
-0.503356 0.046980 0.007615
-0.503356 0.060403 0.006947
-0.503356 0.073826 0.005831
-0.503356 0.087248 0.002913
-0.503356 0.100671 0.005759
-0.503356 0.114094 0.008135
-0.503356 0.127517 0.003533
-0.503356 0.140940 0.002648
-0.503356 0.154362 0.004812
-0.503356 0.167785 0.006472
-0.503356 0.181208 0.000567
-0.503356 0.194631 -0.002675
-0.503356 0.208054 0.000418
-0.503356 0.221477 0.001327
-0.503356 0.234899 0.000314
-0.503356 0.248322 -0.000454
-0.503356 0.261745 -0.001472
-0.503356 0.275168 -0.002290
-0.503356 0.288591 -0.003173
-0.503356 0.302013 -0.001310
-0.503356 0.315436 -0.001383
-0.503356 0.328859 -0.006178
-0.503356 0.342282 -0.000301
-0.503356 0.355705 -0.003016
-0.503356 0.369128 -0.003196
-0.503356 0.382550 -0.005245
-0.503356 0.395973 -0.004512
-0.503356 0.409396 -0.007575
-0.503356 0.422819 -0.002429
-0.503356 0.436242 -0.002994
-0.503356 0.449664 -0.006490
-0.503356 0.463087 -0.008793
-0.503356 0.476510 -0.006868
-0.503356 0.489933 -0.005130
-0.503356 0.503356 -0.007111
-0.503356 0.516779 -0.007881
-0.503356 0.530201 -0.005890
-0.503356 0.543624 -0.007836
-0.503356 0.557047 -0.003252
-0.503356 0.570470 -0.003824
-0.503356 0.583893 -0.004139
-0.503356 0.597315 -0.006595
-0.503356 0.610738 -0.004441
-0.503356 0.624161 -0.002277
-0.503356 0.637584 -0.008291
-0.503356 0.651007 -0.003274
-0.503356 0.664430 -0.000427
-0.503356 0.677852 0.000853
-0.503356 0.691275 -0.004182
-0.503356 0.704698 -0.001224
-0.503356 0.718121 0.000830
-0.503356 0.731544 0.001680
-0.503356 0.744966 -0.003879
-0.503356 0.758389 -0.003686
-0.503356 0.771812 0.001173
-0.503356 0.785235 0.002385
-0.503356 0.798658 0.001655
-0.503356 0.812081 0.001749
-0.503356 0.825503 0.005445
-0.503356 0.838926 0.006308
-0.503356 0.852349 0.002608
-0.503356 0.865772 0.004521
-0.503356 0.879195 0.002275
-0.503356 0.892617 0.008410
-0.503356 0.906040 0.002446
-0.503356 0.919463 0.003392
-0.503356 0.932886 0.003991
-0.503356 0.946309 0.003871
-0.503356 0.959732 0.008679
-0.503356 0.973154 0.010878
-0.503356 0.986577 0.006824
-0.503356 1.000000 0.005653
-0.489933 -1.000000 -0.017520
-0.489933 -0.986577 -0.020710
-0.489933 -0.973154 -0.016019
-0.489933 -0.959732 -0.018433
-0.489933 -0.946309 -0.017053
-0.489933 -0.932886 -0.018685
-0.489933 -0.919463 -0.016996
-0.489933 -0.906040 -0.018993
-0.489933 -0.892617 -0.014771
-0.489933 -0.879195 -0.011977
-0.489933 -0.865772 -0.016313
-0.489933 -0.852349 -0.013391
-0.489933 -0.838926 -0.011005
-0.489933 -0.825503 -0.009282
-0.489933 -0.812081 -0.007391
-0.489933 -0.798658 -0.005798
-0.489933 -0.785235 -0.003597
-0.489933 -0.771812 -0.002662
-0.489933 -0.758389 -0.004363
-0.489933 -0.744966 0.001227
-0.489933 -0.731544 0.004601
-0.489933 -0.718121 0.004289
-0.489933 -0.704698 0.001778
-0.489933 -0.691275 0.007304
-0.489933 -0.677852 0.009256
-0.489933 -0.664430 0.007733
-0.489933 -0.651007 0.011202
-0.489933 -0.637584 0.014861
-0.489933 -0.624161 0.016714
-0.489933 -0.610738 0.014808
-0.489933 -0.597315 0.016542
-0.489933 -0.583893 0.016059
-0.489933 -0.570470 0.016315
-0.489933 -0.557047 0.020528
-0.489933 -0.543624 0.020180
-0.489933 -0.530201 0.019857
-0.489933 -0.516779 0.017805
-0.489933 -0.503356 0.021894
-0.489933 -0.489933 0.021006
-0.489933 -0.476510 0.016174
-0.489933 -0.463087 0.020633
-0.489933 -0.449664 0.018359
-0.489933 -0.436242 0.018019
-0.489933 -0.422819 0.012743
-0.489933 -0.409396 0.013046
-0.489933 -0.395973 0.017034
-0.489933 -0.382550 0.012496
-0.489933 -0.369128 0.014530
-0.489933 -0.355705 0.009035
-0.489933 -0.342282 0.007439
-0.489933 -0.328859 0.012838
-0.489933 -0.315436 0.009398
-0.489933 -0.302013 0.005831
-0.489933 -0.288591 0.005001
-0.489933 -0.275168 0.001569
-0.489933 -0.261745 0.002110
-0.489933 -0.248322 0.002159
-0.489933 -0.234899 -0.002628
-0.489933 -0.221477 -0.002409
